38.000000	-113.000000	316.000000	33	28	41
302.000000	-216.000000	206.000000	145	152	171
358.000000	-228.000000	216.000000	52	54	49
113.000000	36.000000	214.000000	23	18	26
19.000000	-61.000000	263.000000	218	219	223
320.000000	-188.000000	189.000000	153	169	175
72.000000	87.000000	67.000000	17	11	21
370.000000	-219.000000	190.000000	145	137	134
332.000000	-216.000000	194.000000	60	61	59
358.000000	-215.000000	177.000000	58	45	49
-55.000000	91.000000	157.000000	195	198	211
62.000000	140.000000	30.000000	17	14	24
-51.000000	77.000000	58.000000	203	200	235
-51.000000	113.000000	133.000000	157	163	180
-57.000000	81.000000	86.000000	44	51	105
-109.000000	152.000000	86.000000	30	34	81
-378.000000	47.000000	8.000000	255	255	250
-384.000000	45.000000	-8.000000	158	153	154
-389.000000	44.000000	-5.000000	223	219	210
174.000000	168.000000	168.000000	184	186	188
179.000000	160.000000	181.000000	201	200	205
-373.000000	41.000000	15.000000	255	247	233
-382.000000	33.000000	3.000000	203	192	184
112.000000	-167.000000	-9.000000	224	221	224
-616.000000	536.000000	202.000000	212	204	200
307.000000	-227.000000	532.000000	118	117	126
173.000000	237.000000	395.000000	224	233	239
250.000000	154.000000	427.000000	226	230	225
82.000000	126.000000	2.000000	156	160	182
81.000000	127.000000	3.000000	102	105	125
5.000000	202.000000	392.000000	190	193	199
-368.000000	69.000000	68.000000	30	27	48
-324.000000	125.000000	90.000000	101	102	127
-93.000000	-76.000000	79.000000	235	232	253
-8.000000	122.000000	20.000000	47	35	49
-98.000000	81.000000	38.000000	239	238	254
182.000000	133.000000	307.000000	100	108	124
74.000000	88.000000	32.000000	178	190	220
-53.000000	192.000000	85.000000	230	233	237
156.000000	179.000000	62.000000	16	21	54
190.000000	265.000000	132.000000	232	232	230
193.000000	254.000000	116.000000	202	203	205
210.000000	159.000000	92.000000	47	49	58
-180.000000	276.000000	308.000000	26	24	52
-196.000000	284.000000	329.000000	169	180	182
-124.000000	149.000000	15.000000	28	41	91
-161.000000	390.000000	260.000000	167	182	186
-98.000000	181.000000	155.000000	86	84	89
-122.000000	118.000000	76.000000	105	114	160
-120.000000	164.000000	26.000000	38	51	106
48.000000	165.000000	169.000000	44	40	52
191.000000	171.000000	142.000000	120	120	138
63.000000	149.000000	16.000000	33	32	48
85.000000	131.000000	3.000000	98	107	142
101.000000	-17.000000	36.000000	186	201	224
388.000000	141.000000	213.000000	97	88	149
365.000000	116.000000	236.000000	120	111	172
426.000000	158.000000	197.000000	89	65	142
-32.000000	194.000000	77.000000	199	199	206
-13.000000	195.000000	74.000000	192	191	202
-83.000000	-112.000000	523.000000	176	181	173
57.000000	263.000000	-24.000000	183	191	210
214.000000	184.000000	133.000000	98	99	122
140.000000	-10.000000	-68.000000	148	153	191
332.000000	-209.000000	180.000000	71	76	82
326.000000	-189.000000	166.000000	239	238	229
345.000000	-187.000000	169.000000	43	39	44
349.000000	-184.000000	186.000000	159	156	150
364.000000	-190.000000	177.000000	55	57	50
401.000000	-174.000000	166.000000	255	255	254
334.000000	-215.000000	475.000000	255	255	255
149.000000	189.000000	132.000000	30	23	36
183.000000	210.000000	159.000000	227	225	230
39.000000	-701.000000	658.000000	65	95	181
68.000000	50.000000	74.000000	135	125	136
-194.000000	361.000000	171.000000	255	255	255
-224.000000	460.000000	223.000000	81	75	78
374.000000	-206.000000	162.000000	255	255	255
383.000000	-190.000000	186.000000	255	255	255
172.000000	156.000000	98.000000	123	130	149
328.000000	-196.000000	167.000000	96	85	76
357.000000	-205.000000	187.000000	65	65	58
378.000000	-214.000000	182.000000	203	205	193
-164.000000	158.000000	109.000000	226	228	228
-364.000000	91.000000	32.000000	55	72	130
-61.000000	134.000000	5.000000	238	226	235
